7.58,5.15,24.76,0.03,0.24,-0.97
9.44,3.78,23.78,-0.44,0.17,-0.88
9.22,3.49,23.93,0.04,0.00,-1.00
10.19,3.67,24.30,0.10,0.09,-0.99
11.12,6.19,24.91,-0.12,0.66,-0.74
13.61,4.26,22.09,0.06,0.58,-0.81
13.84,9.01,23.78,0.34,0.01,-0.94
10.00,14.04,26.55,0.03,0.21,-0.98
10.36,13.39,24.77,0.00,0.40,-0.92
9.66,16.98,25.46,-0.04,0.09,-0.99
8.44,21.09,24.11,0.08,0.16,-0.98
5.80,23.22,24.46,0.03,-0.07,-1.00
4.46,24.18,25.51,-0.16,-0.19,-0.97
3.05,27.27,24.01,-0.03,0.02,-1.00
1.50,32.84,21.73,-0.18,-0.05,-0.98
-0.83,34.64,19.70,0.05,-0.28,-0.96
-5.04,32.73,20.12,-0.07,-0.19,-0.98
-8.25,31.87,21.36,0.02,-0.48,-0.88
-9.64,29.00,22.71,-0.10,-0.30,-0.95
-12.32,25.05,22.60,-0.11,-0.34,-0.93
-14.09,20.58,23.68,-0.30,-0.08,-0.95
-15.60,19.48,24.06,-0.15,-0.15,-0.98
-15.55,18.85,23.29,-0.07,0.14,-0.99
-18.10,17.86,22.53,-0.29,-0.04,-0.96
-16.85,15.21,22.96,-0.20,0.00,-0.98
-14.65,14.86,23.30,0.01,-0.02,-1.00
-14.70,14.15,23.54,-0.25,0.06,-0.97
-14.37,15.00,24.67,-0.25,-0.12,-0.96
-12.27,13.17,25.71,-0.08,0.17,-0.98
-8.19,16.60,25.83,-0.23,-0.61,-0.76
-8.08,15.75,25.89,0.23,-0.52,-0.82
-6.84,15.53,26.46,-0.12,0.20,-0.97
-6.80,11.24,26.73,0.08,-0.30,-0.95
-4.25,8.67,27.48,-0.36,0.38,-0.86
-1.70,3.48,26.73,-0.08,-0.37,-0.92
0.35,2.54,25.81,-0.15,0.08,-0.98
1.50,0.42,23.34,-0.31,0.20,-0.93
0.04,2.88,25.73,-0.55,-0.24,-0.80
-0.82,6.29,25.62,-0.17,0.07,-0.98
2.25,4.13,25.92,-0.44,0.15,-0.88
2.28,5.46,25.78,-0.00,-0.24,-0.97
3.19,3.39,25.29,-0.46,0.00,-0.89
3.25,5.38,27.39,-0.30,0.07,-0.95
3.47,8.12,26.86,-0.20,0.21,-0.96
2.88,5.63,26.01,-0.11,0.39,-0.91
2.92,4.64,24.68,-0.20,0.33,-0.92
3.60,1.53,24.69,-0.23,0.52,-0.82
4.57,1.77,24.01,-0.31,0.25,-0.92
4.19,3.26,24.82,-0.16,0.06,-0.98
5.07,5.94,26.49,-0.22,0.39,-0.89
5.81,14.66,27.10,-0.36,0.29,-0.89
6.70,20.10,26.15,-0.25,-0.33,-0.91
7.36,22.20,25.00,-0.15,-0.38,-0.91
6.08,24.28,25.87,-0.03,-0.02,-1.00
4.61,27.27,24.51,-0.36,0.38,-0.85
5.65,24.46,24.93,-0.07,-0.13,-0.99
5.25,24.79,25.52,0.03,0.07,-1.00
4.86,24.77,24.48,-0.12,-0.23,-0.96
4.06,26.25,24.12,-0.04,0.22,-0.97
0.71,28.09,24.23,-0.15,-0.28,-0.95
-1.15,30.22,22.94,-0.08,-0.34,-0.94
-1.16,33.90,20.42,-0.10,-0.02,-1.00
-3.12,34.92,18.75,-0.15,-0.35,-0.92
-2.58,37.41,18.23,0.08,-0.21,-0.97
-2.56,39.37,14.61,-0.13,-0.66,-0.74
-3.21,40.25,15.08,-0.18,-0.76,-0.63
-3.66,40.94,11.76,-0.05,-0.70,-0.71
-2.29,42.18,11.25,0.07,-0.55,-0.83
0.01,43.27,10.31,0.16,-0.68,-0.71
1.98,43.55,9.13,0.09,-0.63,-0.77
3.30,43.87,7.30,0.25,-0.68,-0.68
3.04,44.15,7.09,0.11,-0.84,-0.53
3.09,44.26,5.05,0.22,-0.69,-0.69
1.54,45.76,3.94,-0.00,-0.94,-0.33
-3.02,45.46,1.55,-0.10,-0.80,-0.59
-6.18,45.96,-1.79,-0.05,-0.88,-0.46
-7.48,45.40,-7.17,-0.35,-0.84,-0.42
-10.08,44.97,-9.58,-0.36,-0.92,-0.11
-13.21,42.81,-11.47,-0.60,-0.78,-0.17
-16.56,41.65,-10.71,-0.57,-0.82,-0.00
-18.92,41.19,-7.41,-0.67,-0.71,-0.19
-21.64,38.94,-7.70,-0.67,-0.74,-0.04
-23.02,37.02,-7.31,-0.66,-0.46,-0.59
-23.78,35.95,-5.04,-0.72,-0.69,-0.08
-25.37,34.38,-4.42,-0.93,-0.19,-0.31
-27.38,29.47,-2.93,-0.85,-0.41,-0.33
-28.72,27.06,-5.13,-0.92,-0.35,-0.19
-29.85,23.96,-7.80,-0.93,-0.05,-0.35
-30.69,18.42,-10.06,-0.99,-0.08,0.12
-27.66,9.52,-12.01,-0.97,0.24,0.08
-21.61,1.51,-15.45,-0.94,0.03,0.34
-14.61,-2.75,-17.87,-0.87,0.44,0.21
-7.87,-5.31,-18.16,-0.54,0.75,0.39
-1.77,-6.80,-18.98,-0.58,0.63,0.51
5.27,-7.70,-17.85,-0.11,0.79,0.61
11.15,-7.80,-15.43,-0.31,0.84,0.45
17.63,-6.16,-10.10,0.46,0.88,-0.11
19.57,-3.38,-9.63,0.25,0.93,0.29
21.25,-2.00,-8.91,0.45,0.70,0.55
23.73,-0.63,-9.48,0.33,0.90,0.27
24.85,0.74,-10.23,0.64,0.68,0.35
25.44,1.61,-11.82,0.25,0.73,0.63
26.89,4.98,-11.38,0.61,0.39,0.69
26.99,8.12,-10.30,0.73,0.60,0.32
28.86,12.73,-8.46,0.37,0.52,0.77
29.09,18.51,-2.69,0.98,0.12,0.13
28.75,21.03,1.39,0.86,-0.48,0.17
27.97,21.26,5.66,0.80,0.56,-0.20
25.89,25.38,9.70,0.84,0.02,0.55
18.14,31.58,13.75,0.66,-0.65,-0.37
13.61,34.46,14.99,0.66,-0.45,-0.60
12.07,37.22,15.10,0.73,-0.66,0.16
6.20,34.36,20.20,0.30,0.85,-0.43
-0.39,35.28,20.13,0.34,-0.63,-0.69
-10.30,40.10,14.38,-0.12,-0.65,-0.75
-19.67,39.16,12.33,-0.12,-0.85,-0.51
-24.44,36.00,9.33,-0.72,-0.50,-0.48
-29.75,30.80,2.56,-0.41,-0.60,-0.68
-32.47,26.32,-4.70,-0.86,-0.49,-0.16
-31.74,21.74,-9.24,-1.00,-0.08,-0.05
-28.03,18.04,-17.60,-0.99,-0.10,0.04
-21.56,15.91,-22.99,-0.84,0.24,0.49
-15.66,16.63,-27.77,-0.94,-0.08,0.33
-9.17,20.61,-29.92,-0.27,-0.09,0.96
-4.66,22.62,-30.90,-0.71,-0.19,0.68
2.37,22.45,-31.31,0.02,-0.37,0.93
9.40,19.27,-29.66,-0.18,-0.11,0.98
15.42,14.59,-27.78,0.31,0.33,0.89
17.27,11.44,-25.13,0.01,0.29,0.96
20.98,10.63,-22.56,0.45,-0.12,0.89
22.42,11.51,-20.46,0.41,0.17,0.90
25.28,14.94,-16.86,0.55,-0.26,0.79
27.40,17.35,-13.92,0.59,-0.13,0.80
27.06,20.02,-8.30,0.93,0.20,0.30
28.00,19.13,-7.42,0.63,-0.52,0.58
29.46,14.89,-3.39,0.97,0.01,0.25
28.83,13.75,-0.20,0.91,-0.30,0.28
27.22,11.21,5.73,0.99,-0.07,-0.16
26.57,7.64,7.87,0.86,-0.48,0.17
22.47,4.80,13.23,0.81,0.05,-0.58
20.29,4.37,16.09,0.73,0.08,-0.68
17.87,2.31,17.10,0.55,-0.46,-0.69
12.99,0.62,19.62,0.43,0.35,-0.83
11.69,2.99,21.20,0.62,-0.19,-0.76
9.29,4.93,23.75,0.43,0.15,-0.89
6.01,8.25,25.50,0.61,-0.36,-0.71
2.09,12.26,26.77,0.25,-0.20,-0.95
1.53,11.39,26.56,0.34,-0.17,-0.93
3.32,9.56,26.44,0.25,0.32,-0.91
4.69,9.08,25.50,0.32,-0.13,-0.94
3.77,10.17,26.32,-0.03,-0.29,-0.96
4.06,13.75,27.54,-0.34,-0.80,-0.50
-4.14,17.48,28.15,-0.15,-0.53,-0.83
-10.86,20.10,26.10,-0.27,-0.68,-0.68
-15.09,18.04,24.30,-0.66,-0.44,-0.60
-18.96,21.01,22.24,-0.39,0.27,-0.88
-19.18,21.36,21.41,-0.52,-0.49,-0.70
-18.21,19.04,22.14,-0.52,-0.45,-0.72
-14.87,18.42,22.96,-0.53,-0.03,-0.84
-13.82,15.77,25.57,-0.58,-0.56,-0.59
-17.43,10.95,24.07,-0.45,-0.40,-0.80
-17.43,10.10,22.77,-0.62,-0.15,-0.77
-21.46,7.96,18.97,-0.80,0.59,0.11
-23.63,4.14,13.42,-0.70,0.28,-0.66
-24.10,2.23,11.69,-0.98,0.17,-0.11
-22.92,-0.72,8.07,-0.80,0.56,-0.20
-21.67,-3.98,3.70,-0.99,0.10,-0.12
-20.73,-5.48,-0.66,-0.80,0.58,0.14
-17.86,-6.97,-5.47,-0.85,0.51,0.08
-12.54,-9.23,-11.02,-0.63,0.70,0.32
-6.07,-11.11,-13.17,-0.62,0.49,0.61
1.01,-10.18,-14.56,0.06,0.64,0.77
6.86,-8.63,-15.97,-0.04,0.65,0.76
12.49,-7.31,-15.15,0.08,0.65,0.76
17.22,-5.13,-14.51,0.18,0.71,0.68
21.14,-3.65,-11.06,0.51,0.59,0.62
23.79,-3.00,-6.54,0.44,0.33,0.83
25.26,-0.33,-3.17,0.62,0.67,0.40
25.89,2.82,2.27,0.91,0.22,0.33
26.68,5.07,4.81,0.89,0.44,0.12
25.84,9.11,5.94,0.98,-0.19,-0.03
25.17,8.67,7.74,0.99,-0.05,0.11
24.78,10.97,8.91,0.96,0.26,-0.04
26.29,10.52,7.18,0.99,0.11,-0.11
26.56,12.13,5.79,0.96,0.00,0.29
26.62,11.94,7.36,0.93,-0.33,-0.14
28.10,12.13,7.04,0.97,0.18,-0.16
28.50,12.61,6.32,0.96,-0.20,0.18
27.95,11.24,7.65,1.00,0.06,-0.06
28.22,8.72,5.77,0.93,-0.37,-0.02
27.40,10.71,7.36,0.98,-0.12,0.14
27.22,9.72,9.13,0.98,-0.00,-0.18
25.74,10.18,12.35,0.82,-0.49,-0.29
19.79,15.56,18.09,0.69,-0.09,-0.72
15.67,16.58,22.14,0.94,0.01,-0.34
15.25,15.58,23.14,0.17,-0.33,-0.93
7.68,13.85,26.11,0.04,-0.29,-0.95
2.45,9.62,27.09,0.10,-0.19,-0.98
-1.10,2.53,24.99,-0.15,-0.09,-0.98
-10.21,1.37,21.02,-0.33,0.10,-0.94
-17.29,6.10,20.87,-0.51,-0.06,-0.86
-21.40,3.48,14.70,-0.64,0.04,-0.77
-25.17,2.55,7.51,-0.88,0.23,-0.42
-26.83,3.16,2.75,-0.94,0.25,-0.20
-26.64,3.10,-6.03,-0.99,-0.09,0.04
-25.44,4.85,-12.39,-0.95,0.25,0.17
-19.35,2.81,-19.85,-0.89,-0.07,0.45
-13.56,4.06,-24.55,-0.72,0.10,0.68
-9.50,4.36,-27.76,-0.62,-0.00,0.79
-5.02,2.60,-28.71,-0.66,-0.12,0.75
-1.23,1.73,-28.45,-0.24,0.00,0.97
1.25,0.38,-27.83,-0.22,0.17,0.96
1.48,-1.53,-26.53,-0.21,0.12,0.97
3.97,-1.60,-26.56,0.44,0.17,0.88
5.47,-1.09,-26.82,-0.04,0.16,0.99
4.09,1.43,-27.43,0.12,0.31,0.94
1.70,5.82,-29.22,-0.46,-0.14,0.87
1.10,9.20,-30.75,0.28,-0.04,0.96
0.79,11.44,-30.19,0.19,-0.29,0.93
1.32,12.30,-30.62,0.27,-0.09,0.96
0.89,13.73,-30.58,0.25,-0.24,0.94
1.18,15.15,-30.93,0.15,-0.40,0.90
1.05,15.72,-30.85,0.33,-0.19,0.93
0.77,16.63,-31.65,0.24,-0.46,0.85
0.68,17.08,-30.43,0.36,-0.33,0.87
1.51,18.73,-30.16,0.28,-0.48,0.83
2.81,19.04,-30.37,0.44,-0.11,0.89
2.11,19.58,-30.98,0.58,-0.38,0.71
3.28,20.29,-30.15,0.24,-0.28,0.93
3.56,21.25,-30.46,0.43,-0.29,0.86
4.55,21.23,-30.29,0.37,-0.53,0.76
8.08,13.93,-30.19,0.51,-0.00,0.86
12.02,11.66,-27.67,0.71,-0.20,0.68
16.77,12.92,-26.09,0.64,-0.20,0.74
18.25,11.51,-25.83,0.74,-0.44,0.51
18.66,15.67,-23.63,0.88,-0.12,0.45
22.83,14.67,-20.47,0.88,-0.25,0.40
23.22,10.50,-19.30,0.95,-0.07,0.30
24.72,9.05,-15.89,0.95,0.03,0.30
27.39,8.76,-12.24,0.97,0.14,0.19
28.49,8.03,-11.08,0.95,-0.30,-0.09
30.19,5.91,-4.48,0.94,0.23,-0.26
29.47,2.62,0.70,0.89,0.22,-0.41
27.42,1.05,4.58,0.65,0.33,-0.69
25.56,-1.67,8.08,0.62,0.42,-0.66
23.24,-1.22,11.16,0.47,0.32,-0.83
20.00,-2.21,13.96,0.22,0.31,-0.93
17.20,-2.94,16.75,0.35,0.50,-0.79
16.22,-4.38,16.35,0.41,0.20,-0.89
15.81,-3.83,17.19,0.22,0.49,-0.84
11.82,-4.52,18.91,0.24,0.49,-0.84
7.64,-6.32,19.60,-0.19,0.45,-0.87
5.55,-7.21,19.97,-0.29,0.68,-0.67
3.50,-7.60,20.02,-0.37,0.42,-0.82
-1.06,-6.92,19.78,-0.38,0.48,-0.79
-3.37,-7.58,19.42,-0.75,0.50,-0.43
-7.84,-7.35,16.94,-0.73,0.29,-0.61
-13.46,-6.34,14.48,-0.68,0.58,-0.45
-20.08,-4.15,9.92,-0.87,0.37,-0.31
-22.83,-2.09,8.17,-0.64,0.50,-0.58
-20.57,-4.66,7.15,-0.99,-0.10,0.12
-23.39,-2.54,5.29,-0.82,0.50,-0.27
-24.28,-1.67,-0.12,-0.89,0.44,0.12
-24.84,-1.50,-2.28,-0.93,0.00,0.38
-25.63,0.67,-6.75,-0.96,0.17,0.24
-26.27,3.78,-11.12,-0.86,0.32,0.39
-23.80,5.08,-15.54,-0.57,-0.16,0.81
-22.01,7.64,-20.69,-0.61,0.33,0.72
-19.65,8.11,-22.85,-0.53,-0.27,0.80
-17.61,7.96,-23.62,-0.49,-0.02,0.87
-15.05,7.81,-25.38,-0.19,-0.30,0.94
-11.50,9.96,-28.17,-0.35,0.09,0.93
-6.69,10.10,-29.25,0.06,-0.52,0.85
-4.91,11.24,-29.83,0.18,0.13,0.97
-1.44,12.16,-30.68,0.28,-0.27,0.92
1.89,11.79,-29.32,0.41,-0.12,0.90
4.82,12.08,-30.77,0.40,-0.28,0.87
7.82,10.78,-28.22,0.52,0.01,0.85
11.79,9.18,-26.88,0.60,-0.31,0.74
16.56,7.85,-23.78,0.85,0.09,0.52
19.43,4.97,-20.37,0.88,0.06,0.47
22.12,5.87,-17.24,0.77,0.09,0.63
24.41,4.96,-14.14,0.95,0.26,0.14
26.40,5.86,-9.99,0.99,0.12,-0.09
27.28,6.91,-9.35,0.99,0.05,0.12
28.06,6.48,-7.09,0.97,0.15,-0.18
28.42,5.55,-2.80,0.97,0.11,-0.22
27.42,4.46,3.32,0.77,0.10,-0.64
26.29,2.58,4.80,0.81,0.31,-0.50
24.26,-0.76,7.39,0.68,0.34,-0.65
22.44,-1.42,8.80,0.46,0.41,-0.79
23.83,0.33,8.69,0.65,0.30,-0.70
24.46,-0.02,9.00,0.76,0.40,-0.51
22.00,-0.90,12.27,0.46,0.41,-0.79
21.42,0.74,13.78,0.43,0.39,-0.81
20.09,3.06,16.04,0.22,0.31,-0.92
18.73,5.62,20.19,0.22,0.13,-0.97
17.75,8.78,20.53,0.40,0.42,-0.82
15.27,11.27,23.39,-0.01,0.07,-1.00
13.53,11.30,23.84,0.19,0.21,-0.96
11.82,11.73,24.62,0.00,0.58,-0.82
10.36,12.57,25.26,0.03,0.27,-0.96
9.78,14.90,26.23,0.28,0.20,-0.94
6.68,17.91,25.72,-0.05,0.16,-0.99
5.53,21.06,26.95,-0.03,0.13,-0.99
4.98,24.98,25.18,0.02,-0.18,-0.98
5.66,26.97,24.60,-0.02,-0.05,-1.00
4.16,28.11,24.91,0.01,-0.06,-1.00
2.15,29.35,24.82,-0.02,-0.08,-1.00
-0.90,34.70,20.67,-0.07,-0.28,-0.96
-5.05,36.93,18.80,-0.13,-0.32,-0.94
-7.89,37.49,17.50,-0.14,-0.48,-0.87
-9.22,37.98,16.31,-0.08,-0.29,-0.95
-11.77,37.83,15.99,-0.18,-0.44,-0.88
-13.55,35.95,16.86,-0.26,-0.49,-0.83
-15.47,33.73,16.80,-0.28,-0.38,-0.88
-17.44,32.98,16.59,-0.36,-0.57,-0.74
-18.88,30.83,17.36,-0.30,-0.45,-0.84
-19.70,29.21,18.32,-0.35,-0.30,-0.89
-20.52,27.75,16.24,-0.36,-0.21,-0.91
-21.68,25.85,16.85,-0.45,-0.30,-0.84
-21.91,25.48,18.12,-0.44,-0.36,-0.82
-21.89,23.46,19.01,-0.34,-0.44,-0.83
-21.28,22.77,19.10,-0.54,-0.31,-0.78
-20.23,22.17,21.03,-0.16,-0.60,-0.78
-20.04,18.33,21.24,-0.43,-0.41,-0.80
-18.55,15.84,23.29,-0.44,-0.38,-0.81
-17.19,11.32,23.63,-0.40,-0.10,-0.91
-13.83,8.25,24.28,-0.54,0.02,-0.84
-8.23,3.45,24.10,-0.27,-0.05,-0.96
-2.16,1.89,25.20,-0.21,0.18,-0.96
2.37,-0.65,24.27,-0.23,0.17,-0.96
6.02,-0.38,22.89,-0.13,0.24,-0.96
7.82,-1.78,22.95,-0.09,0.33,-0.94
10.34,-1.56,22.05,0.08,0.52,-0.85
13.05,-0.22,22.56,-0.17,0.52,-0.83
15.19,-1.35,18.82,0.20,0.26,-0.94
17.61,2.25,19.45,0.48,0.43,-0.76
19.02,5.38,19.26,0.16,0.34,-0.92
21.20,8.73,17.72,0.17,0.49,-0.86
23.71,10.07,15.19,0.72,0.29,-0.63
24.84,12.85,14.27,0.52,0.53,-0.67
24.82,17.21,14.51,0.83,0.11,-0.54
23.46,19.89,14.60,0.61,0.27,-0.74
22.13,22.01,16.24,0.67,0.20,-0.71
19.04,27.11,17.35,0.63,-0.23,-0.74
14.00,30.22,19.64,0.55,-0.07,-0.83
9.97,33.51,18.87,0.21,-0.06,-0.98
7.32,33.52,20.97,0.29,-0.21,-0.93
3.66,35.30,19.86,0.32,-0.37,-0.87
-0.39,36.25,20.06,0.13,-0.41,-0.90
-2.83,36.02,19.87,0.07,-0.46,-0.88
-4.27,37.10,18.21,-0.05,-0.42,-0.91
-5.91,36.88,18.80,0.00,-0.38,-0.92
-7.69,39.14,16.06,-0.24,-0.42,-0.87
-10.06,39.97,14.39,-0.30,-0.50,-0.81
-7.86,42.20,13.45,-0.45,-0.42,-0.79
-8.01,43.82,11.66,-0.06,-0.63,-0.77
-6.40,45.67,5.64,-0.05,-0.72,-0.70
-7.07,47.27,1.84,-0.02,-0.88,-0.48
-7.17,47.06,-2.03,-0.02,-0.95,-0.30
-7.91,45.90,-3.08,-0.13,-0.91,-0.39
-8.63,46.34,-5.08,-0.12,-0.96,-0.25
-9.51,45.83,-5.73,-0.17,-0.97,-0.17
-11.07,45.09,-7.60,-0.18,-0.96,-0.19
-11.39,44.01,-10.60,-0.23,-0.96,-0.13
-12.90,42.85,-12.98,-0.27,-0.96,0.05
-12.96,43.24,-12.49,-0.23,-0.97,0.08
-10.97,42.85,-12.46,-0.25,-0.97,-0.01
-9.24,43.98,-12.35,-0.09,-0.97,0.20
-7.82,43.74,-13.79,-0.18,-0.87,-0.45
-8.72,41.75,-16.59,-0.09,-0.97,0.22
-9.53,40.69,-18.29,-0.07,-1.00,-0.06
-11.95,40.25,-18.18,-0.17,-0.83,0.54
-12.55,37.98,-18.87,-0.07,-0.99,0.13
-16.16,38.55,-16.88,-0.38,-0.84,0.38
-18.63,39.23,-11.25,-0.20,-0.86,0.46
-20.35,39.97,-7.78,-0.38,-0.92,0.12
-21.75,39.84,-4.58,-0.41,-0.88,-0.22
-23.75,38.75,-1.51,-0.50,-0.86,0.00
-24.44,36.49,2.62,-0.48,-0.87,-0.15
-24.98,34.14,5.94,-0.43,-0.90,-0.07
-24.93,31.69,9.45,-0.35,-0.77,-0.54
-23.34,29.13,13.99,-0.60,-0.64,-0.47
-21.91,27.98,15.21,-0.33,-0.74,-0.58
-19.54,26.09,18.10,-0.66,-0.37,-0.65
-19.49,25.11,19.32,-0.27,-0.70,-0.66
-18.36,25.26,19.35,-0.68,-0.69,-0.26
-18.27,28.55,17.27,-0.32,-0.81,-0.48
-18.10,30.44,17.60,-0.65,-0.75,-0.13
-17.54,32.08,15.54,-0.39,-0.83,-0.39
-16.78,34.29,15.08,-0.51,-0.77,-0.38
-16.70,33.92,16.78,-0.58,-0.70,-0.41
-13.40,32.95,19.08,-0.52,-0.79,-0.32
-12.35,31.41,20.40,-0.50,-0.66,-0.56
-7.96,30.91,22.27,-0.48,-0.78,-0.39
-5.42,32.13,21.87,-0.41,-0.60,-0.68
-3.31,32.47,23.22,-0.36,-0.68,-0.64
-1.27,33.33,22.09,-0.14,-0.61,-0.78
0.77,34.94,20.75,-0.20,-0.82,-0.53
1.68,34.83,20.01,-0.23,-0.72,-0.65
1.90,36.38,17.81,-0.22,-0.86,-0.45
3.66,37.39,17.07,-0.20,-0.74,-0.64
4.69,38.90,16.04,-0.29,-0.90,-0.34
5.54,40.75,12.72,-0.11,-0.69,-0.71
5.96,43.18,9.90,-0.23,-0.96,-0.15
6.87,43.79,8.22,-0.26,-0.76,-0.60
7.42,44.04,4.44,-0.16,-0.98,-0.09
8.09,44.49,0.99,-0.18,-0.88,-0.44
7.91,44.97,-0.63,-0.10,-0.99,-0.06
7.80,45.59,-4.60,-0.11,-0.94,-0.32
7.14,44.82,-5.52,-0.09,-0.97,0.25
7.73,44.41,-6.75,-0.04,-0.95,-0.31
6.14,45.20,-9.83,-0.15,-0.96,0.25
6.54,44.47,-11.41,-0.02,-0.99,-0.15
3.69,45.42,-9.83,-0.09,-0.99,-0.00
1.94,45.20,-10.79,-0.22,-0.96,-0.15
0.27,44.43,-11.36,0.24,-0.91,0.34
-0.74,44.02,-12.89,-0.26,-0.96,-0.04
-0.32,43.02,-17.32,-0.06,-0.94,0.34
-1.76,42.13,-17.25,-0.34,-0.92,0.21
-1.05,41.92,-18.58,-0.10,-0.96,0.27
-3.09,42.87,-16.88,-0.46,-0.88,0.11
-5.57,44.82,-14.29,-0.19,-0.94,-0.27
-12.21,45.09,-4.39,-0.47,-0.83,-0.30
-12.73,44.56,-3.78,-0.62,-0.78,0.11
-13.92,43.25,-6.68,-0.27,-0.91,-0.31
-12.22,43.96,-8.63,-0.55,-0.70,-0.45
-13.78,43.25,-7.18,-0.24,-0.95,0.22
-13.53,43.32,-8.39,-0.28,-0.89,-0.36
-14.77,42.36,-9.19,-0.23,-0.96,-0.17
-16.63,41.81,-9.57,-0.28,-0.90,0.34
-16.21,40.12,-12.32,-0.31,-0.90,-0.31
-16.94,41.05,-11.36,-0.26,-0.79,0.55
-17.16,39.45,-14.00,-0.33,-0.94,-0.08
-19.34,38.51,-13.78,-0.35,-0.76,0.54
-18.96,36.68,-16.67,-0.37,-0.89,0.26
-17.36,35.69,-19.80,-0.74,-0.58,-0.33
-15.63,33.33,-23.22,-0.40,-0.85,0.33
-14.32,31.05,-25.04,-0.35,-0.81,0.47
-11.52,27.84,-28.21,-0.30,-0.68,0.67
-10.38,23.74,-29.05,-0.19,-0.72,0.67
-9.89,17.08,-30.43,-0.23,-0.17,0.96
-9.47,12.30,-30.18,-0.08,-0.20,0.98
-8.37,10.35,-29.17,-0.20,-0.14,0.97
-8.78,7.75,-28.36,-0.06,0.08,0.99
-9.14,9.63,-28.82,-0.03,-0.09,1.00
-10.66,10.21,-29.31,-0.15,0.06,0.99
-11.15,8.47,-28.31,0.01,-0.20,0.98
-12.40,8.22,-27.94,-0.08,0.14,0.99
-14.05,8.24,-25.96,-0.24,-0.13,0.96
-16.05,9.36,-25.01,-0.22,0.22,0.95
-19.65,11.16,-24.73,-0.15,0.04,0.99
-22.28,11.99,-22.73,-0.23,0.17,0.96
-24.49,14.12,-20.25,-0.48,-0.01,0.88
-25.84,16.56,-20.35,-0.62,0.14,0.77
-25.83,18.84,-20.35,-0.33,-0.07,0.94
-24.27,19.01,-22.52,-0.66,0.11,0.74
-21.50,19.31,-24.77,-0.22,-0.14,0.96
-18.14,19.91,-26.09,-0.33,0.29,0.90
-7.98,23.36,-31.10,0.35,-0.25,0.90
-3.75,24.56,-30.91,0.07,-0.01,1.00
-2.51,24.06,-30.54,0.36,-0.01,0.93
-3.25,24.33,-31.14,0.41,0.20,0.89
-5.22,25.88,-30.83,0.24,-0.04,0.97
-5.79,26.21,-30.11,0.38,0.06,0.92
-7.10,27.55,-30.08,-0.04,0.10,0.99
-8.73,28.93,-30.38,0.22,0.01,0.97
-9.84,30.30,-30.08,0.12,-0.04,0.99
-9.03,30.13,-28.48,-0.18,-0.16,0.97
-5.08,35.25,-26.12,0.22,0.80,0.55
-4.32,36.94,-24.83,0.16,-0.33,0.93
-3.89,36.49,-26.18,-0.11,-0.34,0.93
-2.95,35.82,-26.00,0.27,-0.03,0.96
-3.16,37.57,-24.19,-0.12,-0.40,0.91
-3.03,36.43,-25.31,0.02,-0.28,0.96
-4.02,35.68,-26.29,-0.12,-0.31,0.94
-4.09,34.81,-26.59,-0.23,-0.40,0.89
-4.05,33.12,-27.86,0.04,-0.06,1.00
-4.64,32.71,-27.88,0.00,-0.32,0.95
-4.66,32.54,-26.90,-0.09,-0.04,0.99
-4.68,32.51,-27.67,-0.14,-0.29,0.95
-3.23,31.27,-28.85,-0.22,-0.35,0.91
-3.47,31.95,-27.67,-0.10,-0.16,0.98
-2.65,34.35,-26.83,-0.29,-0.37,0.88
2.25,33.83,-27.14,-0.07,-0.25,0.96
5.54,33.37,-26.57,-0.22,-0.72,0.66
6.85,30.70,-27.05,-0.09,-0.30,0.95
9.23,27.06,-28.45,0.07,-0.02,1.00
10.21,26.66,-27.25,-0.05,-0.45,0.89
11.07,23.75,-27.37,0.03,-0.42,0.91
11.94,21.75,-28.52,0.26,0.28,0.93
11.28,19.46,-28.45,-0.00,-0.42,0.91
11.98,15.81,-28.25,0.25,0.22,0.94
10.75,14.28,-28.20,-0.00,-0.07,1.00
9.78,13.75,-28.44,-0.04,-0.05,1.00
10.47,12.34,-28.75,0.11,-0.13,0.98
9.86,12.07,-29.63,0.05,-0.16,0.99
9.12,10.78,-28.61,0.01,-0.03,1.00
9.40,10.90,-28.43,0.03,-0.16,0.99
8.08,11.29,-29.16,-0.02,-0.12,0.99
8.35,10.52,-27.93,0.06,-0.38,0.92
7.29,11.24,-28.74,0.34,0.42,0.84
8.91,11.32,-29.06,0.14,-0.59,0.79
9.18,12.33,-28.71,0.14,-0.69,0.71
6.67,12.10,-29.20,0.27,0.38,0.88
4.44,10.02,-29.33,0.11,-0.35,0.93
1.83,7.13,-29.36,-0.00,0.47,0.88
0.50,6.64,-29.79,-0.03,-0.30,0.95
-0.50,6.07,-28.74,0.02,0.30,0.95
-0.89,5.20,-27.48,-0.09,-0.30,0.95
-1.70,6.32,-28.56,0.07,0.05,0.99
-1.46,5.90,-29.55,-0.09,-0.22,0.97
-2.55,7.21,-28.91,0.08,0.07,0.99
-2.78,7.46,-28.37,-0.04,-0.17,0.98
-2.87,8.01,-28.83,0.10,-0.13,0.99
-3.45,8.40,-28.99,-0.02,0.00,1.00
-5.46,9.03,-29.36,-0.02,-0.12,0.99
-7.54,6.90,-27.61,-0.08,-0.07,0.99
-9.70,6.92,-27.48,-0.10,0.06,0.99
-11.01,6.97,-26.92,-0.25,0.05,0.97
-13.29,6.43,-25.21,-0.16,0.10,0.98
-15.66,7.10,-24.63,-0.30,0.05,0.95
-18.79,9.38,-23.49,-0.26,0.17,0.95
-21.07,12.16,-22.13,-0.49,-0.08,0.87
-22.89,13.65,-21.91,-0.35,0.11,0.93
-22.92,15.58,-23.23,-0.38,0.08,0.92
-23.08,16.94,-21.84,-0.34,0.11,0.93
-23.72,16.80,-22.46,-0.44,0.11,0.89
-23.52,14.87,-20.85,-0.40,0.15,0.90
-24.66,11.89,-19.80,-0.50,0.01,0.86
-25.96,11.27,-16.88,-0.52,0.40,0.76
-27.21,9.84,-14.44,-0.44,0.30,0.85
-27.47,8.47,-13.60,-0.71,0.46,0.53
-26.89,6.23,-12.57,-0.45,0.43,0.78
-27.47,5.73,-9.58,-0.73,0.48,0.48
-29.14,6.91,-7.64,-0.61,0.61,0.50
-29.05,5.93,-2.43,-0.78,0.53,0.33
-29.59,6.80,2.19,-0.73,0.65,0.20
-28.69,6.70,3.45,-0.84,0.54,0.08
-27.16,6.79,7.47,-0.69,0.73,0.03
-25.00,8.53,12.59,-0.58,0.77,-0.26
-21.28,16.15,18.84,-0.67,-0.47,-0.57
-20.24,26.07,20.02,-0.42,0.35,-0.83
-16.02,27.61,21.39,-0.48,-0.17,-0.86
-11.02,33.90,20.74,-0.31,-0.10,-0.94
-7.96,36.66,17.47,-0.19,-0.49,-0.85
-5.66,38.57,16.66,-0.14,-0.26,-0.96
-5.55,41.36,14.17,-0.09,-0.57,-0.82
-4.38,42.35,13.85,-0.04,-0.55,-0.83
-3.55,42.83,13.89,-0.01,-0.61,-0.79
-2.47,42.36,15.14,0.07,-0.54,-0.84
-1.37,41.21,15.61,0.10,-0.48,-0.87
1.78,40.15,17.43,0.08,-0.53,-0.84
4.33,38.83,17.35,0.20,-0.37,-0.91
6.91,37.27,17.55,0.20,-0.49,-0.85
9.44,36.01,17.41,0.23,-0.20,-0.95
11.61,34.23,17.40,0.26,-0.45,-0.85
13.83,32.46,17.83,0.32,-0.25,-0.91
15.59,30.40,18.48,0.40,-0.27,-0.88
17.65,27.01,18.82,0.41,-0.21,-0.89
18.63,24.32,18.48,0.33,-0.09,-0.94
20.04,22.20,17.93,0.46,-0.18,-0.87
20.89,19.02,17.50,0.37,-0.02,-0.93
21.73,16.74,18.36,0.41,-0.11,-0.90
22.08,14.32,17.33,0.44,-0.05,-0.90
20.73,12.37,18.92,0.33,0.30,-0.90
20.42,10.52,19.09,0.40,0.12,-0.91
19.20,8.51,18.74,0.25,0.15,-0.95
18.32,5.46,19.89,0.29,0.16,-0.94
18.35,3.64,18.08,0.28,0.51,-0.81
17.24,1.48,16.98,0.26,0.33,-0.91
16.50,-1.12,16.89,0.19,0.36,-0.91
17.19,-2.48,14.15,0.27,0.45,-0.85
17.50,-3.67,14.43,0.32,0.33,-0.89
16.74,-5.99,11.46,0.27,0.58,-0.77
14.31,-7.60,9.90,0.35,0.54,-0.76
11.08,-8.95,10.34,0.11,0.65,-0.76
8.78,-8.44,10.44,0.14,0.61,-0.78
9.38,-10.58,7.91,0.20,0.70,-0.69
11.36,-10.69,3.37,0.29,0.75,-0.60
14.67,-8.30,0.83,0.40,0.77,-0.50
18.05,-6.65,-3.96,0.76,0.65,0.00
20.21,-3.69,-7.20,0.81,0.56,-0.18
22.58,0.27,-10.56,0.85,0.52,-0.09
23.03,4.10,-13.71,0.89,0.45,0.07
24.01,9.84,-16.47,0.86,0.50,0.11
23.52,17.94,-18.25,0.98,-0.01,0.21
21.98,22.45,-20.20,0.93,-0.16,0.33
19.74,27.50,-19.71,0.91,-0.37,0.17
15.58,33.64,-19.10,0.39,-0.84,0.38
10.80,36.93,-20.54,0.53,-0.78,0.33
5.66,40.26,-20.07,0.34,-0.85,0.40
1.56,42.35,-18.87,0.30,-0.95,0.10
-1.56,43.96,-17.27,0.17,-0.97,0.16
-3.47,43.73,-16.41,0.16,-0.98,0.07
-6.58,44.74,-14.23,-0.01,-0.99,0.10
-9.69,43.99,-13.50,-0.04,-1.00,0.07
-11.57,42.64,-17.02,0.13,-0.96,0.23
-12.00,40.49,-18.13,-0.28,-0.92,0.27
-11.71,36.04,-22.90,-0.29,-0.89,0.35
-11.43,31.52,-26.15,-0.25,-0.75,0.61
-10.52,26.79,-27.81,-0.28,-0.65,0.70
-4.64,17.46,-30.08,-0.15,-0.80,0.57
-3.28,13.07,-29.64,0.01,-0.21,0.98
-1.04,9.58,-29.90,0.01,-0.10,0.99
-1.40,9.51,-29.75,-0.01,-0.10,0.99
-2.71,9.55,-29.76,-0.08,-0.12,0.99
-3.72,12.81,-30.29,-0.12,-0.26,0.96
-6.92,14.94,-30.26,-0.16,-0.18,0.97
-10.73,11.73,-29.11,-0.21,-0.25,0.94
-14.05,12.85,-27.34,-0.29,-0.19,0.94
-15.64,10.68,-25.52,-0.50,-0.24,0.83
-19.17,7.57,-22.07,-0.56,-0.06,0.83
-21.97,5.54,-17.99,-0.76,-0.62,-0.19
-26.35,5.43,-10.68,-0.83,0.18,0.53
-29.06,8.08,-5.65,-0.89,0.07,0.45
-29.99,11.73,1.37,-0.98,0.11,0.19
-29.39,15.01,8.40,-1.00,-0.08,0.01
-26.14,16.96,15.03,-0.99,-0.03,-0.08
-22.75,16.85,19.29,-0.91,-0.10,-0.39
-16.99,13.16,23.62,-0.74,-0.12,-0.66
-12.49,10.13,25.01,-0.70,0.01,-0.72
-6.27,5.82,24.50,-0.47,-0.01,-0.88
-0.99,3.89,24.74,-0.46,0.20,-0.87
3.49,3.33,23.90,-0.14,0.22,-0.96
7.14,2.12,23.45,-0.21,0.41,-0.88
10.36,3.12,22.16,-0.21,0.33,-0.92
13.06,6.15,22.40,-0.01,0.18,-0.98
15.06,8.51,21.53,0.04,0.35,-0.94
17.98,9.19,19.84,0.33,-0.12,-0.93
20.97,8.33,16.82,0.35,0.37,-0.86
23.73,7.78,12.85,0.38,0.18,-0.90
26.42,8.12,10.34,0.66,0.45,-0.61
27.93,8.50,6.18,0.90,0.19,-0.39
28.48,8.07,4.03,0.61,-0.08,-0.79
28.96,4.80,-0.70,0.74,0.64,-0.22
27.76,7.69,-1.59,0.56,0.37,-0.74
27.92,7.59,-6.37,0.97,0.18,-0.15
27.77,6.97,-7.84,0.90,0.42,-0.07
28.11,8.57,-10.68,0.81,0.42,-0.42
26.31,10.93,-15.16,0.91,0.40,0.06
24.08,13.43,-17.91,0.84,0.15,0.52
21.80,16.71,-21.75,0.92,0.39,0.08
17.22,20.00,-23.65,0.83,0.01,0.55
14.05,22.71,-26.15,0.94,-0.12,0.33
10.10,23.96,-28.54,0.74,-0.05,0.68
5.18,26.03,-28.98,0.82,-0.49,0.30
1.05,26.92,-30.53,0.21,-0.80,0.56
-1.14,24.66,-31.07,0.17,-0.24,0.95
-6.65,23.89,-31.08,0.26,-0.37,0.89
-11.79,23.84,-29.68,-0.39,-0.22,0.89
-14.12,23.05,-27.97,0.04,-0.27,0.96
-19.58,23.79,-25.89,-0.25,-0.16,0.96
-23.19,22.57,-23.50,-0.14,-0.12,0.98
-26.71,19.23,-20.17,-0.53,-0.15,0.84
-30.25,19.46,-14.32,-0.62,-0.21,0.75
-31.68,18.55,-8.48,-0.89,-0.12,0.43
-32.42,19.97,-2.83,-0.94,-0.07,0.32
-32.47,19.04,1.21,-0.94,-0.29,0.20
-32.28,20.59,4.44,-0.98,-0.16,-0.11
-30.40,16.65,8.00,-0.94,-0.33,-0.03
-28.26,14.22,12.13,-0.91,-0.09,-0.39
-25.42,13.18,16.64,-0.97,-0.03,-0.24
-22.62,15.31,18.40,-0.83,-0.06,-0.55
-22.11,19.04,19.40,-0.95,0.01,-0.30
-22.23,21.23,20.98,-0.80,-0.06,-0.60
-21.01,22.83,21.41,-0.93,-0.01,-0.37
-20.26,21.57,22.19,-0.63,-0.17,-0.76
-18.79,17.64,22.99,-0.88,0.35,-0.33
-17.94,12.27,22.95,-0.48,0.37,-0.79
-16.26,8.85,22.30,-0.83,0.43,-0.36
-13.23,3.82,21.28,-0.53,0.35,-0.77
-9.16,-2.27,17.16,-0.47,0.86,-0.22
-4.72,-7.06,16.61,-0.31,0.79,-0.53
-1.22,-9.33,14.32,-0.17,0.90,-0.41
4.47,-12.52,8.50,0.10,0.99,-0.04
10.91,-11.40,-3.15,0.37,0.82,0.43
15.44,-8.35,-7.75,0.52,0.74,0.43
20.57,-8.79,-2.83,0.50,0.78,0.37
21.92,-5.10,-0.90,0.80,0.51,0.31
24.33,-0.79,0.46,0.87,0.18,0.45
25.94,3.85,6.62,0.84,0.54,0.01
26.73,9.38,7.40,0.99,-0.07,0.14
26.78,14.15,7.93,0.95,-0.24,-0.20
26.98,17.75,8.00,0.92,-0.37,-0.16
25.52,21.85,8.45,0.78,-0.61,0.09
24.99,24.68,10.46,0.84,-0.47,-0.26
22.06,27.53,12.34,0.66,-0.73,-0.14
18.46,30.53,14.51,0.63,-0.71,-0.32
15.20,33.80,16.05,0.43,-0.88,-0.22
12.04,37.13,14.40,0.32,-0.84,-0.44
6.96,39.42,15.38,-0.04,-0.95,-0.31
1.54,40.75,16.43,-0.07,-0.95,-0.31
-2.45,40.93,16.20,-0.19,-0.88,-0.44
-7.06,40.76,15.84,-0.32,-0.82,-0.48
-11.05,39.14,16.60,-0.71,-0.62,-0.34
-14.69,35.28,19.08,-0.62,-0.68,-0.39
-16.30,31.30,20.72,-0.81,-0.34,-0.46
-17.38,26.54,21.20,-0.72,-0.48,-0.49
-17.02,21.66,22.58,-0.79,0.06,-0.61
-15.25,15.17,24.18,-0.68,0.18,-0.71
-11.90,12.49,25.52,-0.57,0.26,-0.78
-6.29,9.07,25.82,-0.43,0.29,-0.85
-0.16,6.91,25.81,-0.49,0.50,-0.71
5.94,6.95,26.04,-0.19,0.54,-0.82
11.44,7.30,23.02,-0.17,0.51,-0.84
15.47,8.68,22.19,0.26,0.60,-0.76
19.09,10.01,20.91,0.34,0.46,-0.82
21.30,12.61,18.37,0.48,0.27,-0.83
23.85,13.13,15.26,0.46,0.54,-0.70
25.57,17.64,12.93,0.64,0.18,-0.75
27.48,16.08,9.51,0.71,0.30,-0.63
28.41,17.61,4.66,0.87,0.34,-0.35
29.53,19.62,2.06,0.83,0.22,-0.51
29.32,20.91,-5.07,0.95,0.24,-0.20
27.17,24.23,-9.07,0.93,-0.37,0.08
25.57,25.22,-12.81,1.00,0.03,-0.06
24.23,26.93,-14.99,0.71,-0.63,0.32
22.36,27.23,-17.98,0.97,0.13,-0.19
19.87,26.54,-20.76,0.54,-0.62,0.57
18.65,25.05,-23.34,0.99,-0.12,-0.10
15.67,23.30,-26.66,0.56,-0.42,0.71
10.47,21.59,-28.76,0.51,-0.37,0.77
5.00,18.52,-30.36,0.41,-0.29,0.87
-1.12,16.00,-30.86,0.25,-0.44,0.86
-5.42,12.63,-30.35,0.34,0.35,0.87
-9.01,8.44,-28.83,0.25,0.34,0.90
-10.97,4.30,-24.67,-0.07,0.41,0.91
-10.10,-0.56,-21.75,-0.22,0.10,0.97
-9.00,-4.99,-18.10,-0.05,0.66,0.75
-4.80,-10.44,-11.88,-0.04,0.49,0.87
-1.23,-12.68,-6.48,0.17,0.83,0.52
2.10,-13.75,-4.02,0.01,0.73,0.68
7.39,-11.51,1.27,0.24,0.87,0.44
14.33,-9.01,6.30,0.46,0.88,0.08
19.60,-3.59,7.96,0.81,0.57,-0.09
21.04,-2.77,6.82,0.88,0.39,0.27
20.12,-3.96,4.00,0.51,-0.16,-0.84
19.96,-4.11,5.92,0.68,0.71,0.16
19.36,-5.37,5.79,0.66,0.75,0.03
20.02,-3.89,6.65,0.62,0.75,0.20
21.77,-2.60,6.53,0.88,0.46,0.08
22.66,-0.51,7.28,0.83,0.56,0.04
23.93,1.05,7.84,0.87,0.49,0.07
23.00,5.68,11.82,0.82,0.42,-0.39
23.91,7.98,13.98,0.87,0.41,-0.26
23.78,15.73,14.93,0.63,0.61,-0.48
24.98,24.82,9.97,0.99,0.09,-0.10
25.60,27.16,6.08,0.96,0.01,-0.29
24.76,31.04,-0.89,0.95,0.24,0.21
24.49,30.47,-5.44,0.93,0.05,-0.36
24.08,29.94,-12.28,0.88,0.06,0.47
25.17,24.21,-15.27,0.91,-0.39,0.13
24.50,19.81,-16.49,0.94,-0.02,0.33
24.62,14.79,-17.49,0.99,0.03,0.16
25.16,11.85,-16.06,0.93,0.07,0.36
25.07,8.76,-14.09,0.98,0.19,0.05
25.50,6.75,-12.67,0.99,0.12,0.10
26.20,6.25,-10.75,0.89,-0.40,-0.23
26.60,5.03,-8.22,0.82,0.56,-0.09
26.75,5.29,-7.19,0.98,0.17,-0.06
26.99,4.31,-4.26,0.76,0.65,-0.04
27.77,5.74,-2.27,0.94,-0.22,0.26
27.93,4.31,-0.11,0.99,-0.00,0.10
27.94,4.52,0.76,0.89,0.19,-0.41
27.55,4.52,2.12,1.00,-0.07,-0.07
26.38,4.54,3.41,0.88,0.04,-0.48
26.38,4.75,4.97,0.99,0.13,-0.11
26.44,5.74,6.40,0.98,0.01,-0.17
26.10,6.67,6.40,0.97,-0.24,0.06
25.72,4.72,6.53,0.94,0.15,-0.29
24.74,3.09,6.35,0.98,-0.18,-0.05
24.17,3.08,7.78,0.91,0.08,-0.40
22.50,1.05,7.19,0.98,0.13,0.12
20.56,-2.19,8.14,0.78,0.60,-0.16
19.54,-0.37,12.37,0.81,0.58,-0.04
20.14,1.59,14.32,0.86,0.39,-0.34
20.51,4.15,15.67,0.94,0.32,-0.12
21.55,5.98,15.63,0.82,0.35,-0.45
24.06,12.01,13.85,0.96,0.23,-0.13
25.66,18.62,12.11,0.98,-0.05,-0.17
25.49,20.79,11.49,0.99,-0.00,-0.10
26.37,22.23,10.17,1.00,-0.05,0.01
25.09,23.52,9.70,0.92,-0.38,-0.12
26.95,19.81,7.45,0.82,0.50,0.27
25.82,21.11,8.42,0.99,-0.01,-0.16
25.45,22.84,8.63,0.97,-0.20,-0.12
27.10,22.64,7.93,0.99,-0.15,-0.01
28.61,23.65,4.02,0.98,0.15,0.08
26.67,29.25,-0.10,0.77,-0.63,0.08
25.26,30.20,-6.19,0.61,-0.58,0.54
24.61,30.41,-9.95,0.26,0.93,-0.27
18.20,32.26,-19.20,0.30,-0.36,0.88
17.14,32.28,-20.00,0.93,-0.23,0.30
16.63,28.55,-23.63,0.49,-0.25,0.83
17.41,22.14,-26.27,0.82,0.29,0.49
16.80,17.16,-26.04,0.52,0.23,0.82
17.49,12.08,-25.55,0.58,0.81,-0.09
17.61,5.85,-23.56,0.61,0.35,0.70
19.18,-0.74,-18.74,0.67,0.74,0.03
19.93,-3.25,-16.44,0.45,0.87,0.22
21.28,-2.94,-13.54,0.69,0.68,-0.24
20.53,-5.25,-8.50,0.65,0.64,-0.41
19.03,-7.10,-6.40,0.64,0.73,-0.22
18.70,-8.46,-5.53,0.64,0.75,-0.12
18.36,-8.22,-3.69,0.78,0.62,-0.10
17.52,-9.34,-0.26,0.45,0.78,-0.43
18.10,-9.14,-0.57,0.65,0.49,-0.58
19.29,-8.20,-2.27,0.56,0.76,-0.33
20.84,-6.27,1.18,0.71,0.52,-0.48
19.70,-5.66,7.07,0.69,0.54,-0.49
18.36,-3.83,11.40,0.46,0.28,-0.84
16.54,-0.33,17.04,0.43,0.10,-0.90
11.90,8.90,23.77,0.22,0.04,-0.97
12.10,16.24,24.54,0.41,-0.42,-0.81
12.68,21.53,23.41,0.55,-0.45,-0.71
11.02,27.99,21.55,0.39,-0.45,-0.80
10.28,35.22,18.68,0.34,-0.90,-0.26
9.00,38.44,16.11,0.33,-0.84,-0.43
8.61,38.87,16.43,0.20,-0.97,-0.15
8.52,40.49,13.96,0.22,-0.94,-0.24
8.36,42.97,10.44,0.31,-0.92,-0.23
7.06,45.89,4.30,0.31,-0.91,0.28
7.46,46.04,1.97,0.12,-0.95,0.28
7.23,45.85,-0.65,0.23,-0.97,0.09
6.92,46.97,-3.88,0.30,-0.89,0.35
7.29,46.59,-4.79,0.24,-0.72,0.65
5.16,46.52,-5.83,0.18,-0.88,0.43
4.87,47.24,-6.51,0.08,-0.84,0.54
5.63,46.33,-8.30,0.20,-0.92,0.32
5.40,45.25,-14.10,0.07,-0.73,0.68
4.66,43.96,-17.14,0.14,-0.53,0.84
4.52,41.04,-19.24,0.09,-0.44,0.89
4.52,39.36,-22.41,-0.01,-0.48,0.87
5.15,38.21,-22.16,0.19,-0.53,0.83
5.97,38.13,-23.25,0.04,-0.44,0.89
7.19,36.08,-24.63,0.09,-0.35,0.93
8.06,34.14,-26.00,0.57,-0.29,0.77
7.07,30.16,-28.43,0.05,-0.24,0.97
7.43,23.32,-30.24,0.08,0.28,0.96
7.13,16.77,-31.76,0.18,0.21,0.96
7.65,10.02,-30.16,0.04,0.41,0.91
8.34,1.40,-27.33,-0.08,0.85,0.52
7.04,-2.19,-24.84,0.13,0.72,0.68
6.20,-4.26,-22.39,-0.08,0.90,0.42
5.47,-5.25,-22.44,0.07,0.87,0.48
4.65,-7.84,-20.51,-0.17,0.91,0.37
3.56,-10.51,-15.91,-0.08,1.00,0.01
3.28,-11.30,-14.66,-0.17,0.95,0.24
1.31,-12.79,-12.78,-0.38,0.92,0.03
1.53,-13.89,-8.00,-0.31,0.94,-0.17
1.99,-14.39,-3.80,-0.13,0.85,0.50
1.44,-14.15,0.06,-0.26,0.93,-0.26
2.22,-14.82,2.78,-0.26,0.88,-0.40
0.44,-13.54,6.05,-0.20,0.80,-0.57
1.04,-13.42,8.14,-0.15,0.86,-0.49
0.56,-13.01,10.23,-0.15,0.82,-0.56
1.78,-12.50,11.47,-0.31,0.72,-0.62
2.73,-10.97,12.90,-0.04,0.88,-0.47
1.34,-10.99,14.34,-0.25,0.72,-0.65
-1.26,-11.12,12.33,-0.22,0.78,-0.58
-2.22,-11.71,12.39,-0.50,0.74,-0.45
-2.69,-9.25,16.39,-0.34,0.62,-0.71
-4.10,-6.68,18.59,-0.40,0.54,-0.74
-4.58,-5.80,20.52,-0.40,0.52,-0.75
-7.03,-2.78,21.53,-0.60,0.50,-0.62
-8.23,0.63,22.83,-0.59,0.33,-0.74
-9.90,2.78,23.38,-0.58,0.16,-0.80
-11.84,5.00,23.93,-0.60,0.37,-0.71
-14.07,7.06,23.78,-0.54,0.10,-0.84
-15.88,10.73,24.55,-0.79,-0.04,-0.60
-16.99,15.52,25.82,-0.77,-0.02,-0.63
-17.19,21.30,24.37,-0.60,-0.16,-0.78
-16.70,24.88,23.50,-0.88,-0.33,-0.33
-18.02,28.45,20.56,-0.57,-0.45,-0.69
-18.46,29.81,20.83,-0.76,-0.63,-0.15
-18.01,29.50,20.76,-0.71,-0.55,-0.45
-19.45,29.25,20.34,-0.95,-0.16,-0.26
-19.96,27.65,20.94,-0.70,-0.17,-0.69
-19.82,22.18,21.56,-0.94,-0.33,0.03
-23.78,18.62,19.20,-0.83,0.04,-0.55
-24.69,13.78,17.92,-0.93,-0.08,-0.36
-25.55,7.42,14.79,-0.88,0.45,-0.15
-25.93,2.84,8.29,-0.81,0.56,-0.15
-24.19,-1.35,4.09,-0.92,0.39,-0.04
-23.82,-2.59,-1.70,-0.79,0.55,0.26
-21.00,-4.99,-3.65,-0.85,0.33,0.42
-20.57,-4.88,-6.40,-0.58,0.68,0.45
-18.71,-5.66,-7.41,-0.60,0.62,0.51
-17.70,-6.62,-8.02,-0.73,0.31,0.61
-16.65,-5.43,-11.33,-0.57,0.58,0.58
-15.43,-4.24,-15.23,-0.55,0.61,0.58
-14.38,-3.02,-17.31,-0.65,0.32,0.69
-13.70,-1.89,-19.15,-0.50,0.43,0.75
-13.48,0.02,-21.78,-0.53,0.27,0.80
-12.40,2.59,-23.18,-0.38,0.25,0.89
-11.61,4.54,-24.62,-0.39,0.09,0.92
-10.46,5.42,-25.95,-0.19,-0.00,0.98
-9.13,7.96,-28.37,-0.20,-0.03,0.98
-6.73,9.03,-29.72,-0.01,-0.29,0.96
-4.38,10.28,-29.90,-0.19,0.01,0.98
-1.09,9.58,-29.71,0.09,0.01,1.00
0.16,11.95,-30.29,-0.11,-0.07,0.99
1.54,16.28,-30.91,0.05,-0.43,0.90
2.53,15.98,-32.26,0.26,-0.39,0.88
1.44,13.10,-31.27,0.12,-0.21,0.97
1.07,11.82,-31.27,0.01,-0.06,1.00
-1.46,7.43,-29.11,0.02,-0.19,0.98
-5.07,3.30,-27.95,-0.02,0.21,0.98
-9.22,-1.42,-23.24,-0.24,0.13,0.96
-14.60,-3.37,-17.27,-0.31,0.45,0.84
-19.46,-3.16,-13.16,-0.69,0.58,0.42
-23.27,-0.99,-9.31,-0.48,0.49,0.73
-25.49,0.66,-6.20,-0.87,0.38,0.31
-27.44,2.49,-3.75,-0.78,0.43,0.46
-29.19,5.44,-1.59,-0.74,0.48,0.48
-29.65,6.16,0.27,-0.95,0.29,0.10
-29.75,8.79,5.07,-0.91,0.41,0.04
-29.71,9.28,6.24,-0.89,0.45,0.04
-29.10,9.78,9.00,-0.94,0.34,0.05
-28.75,10.47,9.92,-0.94,0.34,-0.04
-29.08,11.38,9.35,-0.91,0.40,0.14
-29.31,12.77,9.94,-0.94,0.15,-0.29
-29.25,15.59,10.55,-0.86,0.51,0.05
-29.21,15.04,10.93,-0.94,0.19,-0.28
-30.03,16.38,10.68,-0.91,0.32,-0.26
-30.82,18.43,9.78,-0.89,0.34,-0.28
-30.69,17.79,8.91,-0.93,0.26,-0.27
-30.79,18.70,9.18,-0.97,0.22,-0.06
-30.24,19.89,9.08,-0.98,0.11,-0.14
-30.62,22.31,8.11,-0.97,0.12,-0.22
-29.86,24.55,7.19,-0.96,0.28,-0.08
-30.62,27.16,5.41,-0.95,-0.08,-0.30
-30.59,29.21,3.54,-0.98,-0.03,-0.19
-30.46,31.53,1.83,-0.95,-0.10,-0.31
-29.91,33.11,-0.22,-0.96,-0.19,-0.18
-28.58,35.57,-1.87,-0.97,-0.14,-0.22
-27.70,36.62,-3.11,-1.00,0.01,-0.04
-25.13,39.23,-6.30,-0.88,-0.17,-0.43
-23.78,39.94,-6.45,-0.74,-0.60,0.31
-22.72,40.26,-9.51,-0.84,-0.51,-0.15
-23.66,39.65,-10.99,-0.73,-0.66,-0.15
-23.69,38.93,-11.07,-0.75,-0.60,0.27
-22.33,37.49,-14.07,-0.90,-0.40,-0.14
-21.63,36.34,-16.80,-0.64,-0.73,0.24
-20.00,33.67,-21.36,-0.65,-0.76,-0.03
-19.54,31.18,-23.34,-0.69,-0.11,0.72
-17.22,24.88,-26.25,-0.76,-0.59,0.26
-17.08,21.51,-27.54,-0.48,-0.29,0.83
-14.82,17.65,-28.97,-0.73,0.19,-0.65
-13.33,13.39,-28.97,-0.41,-0.17,0.90
-13.15,12.56,-27.84,-0.59,-0.25,0.77
-14.83,14.73,-28.66,-0.54,-0.16,0.82
-16.32,16.98,-27.97,-0.51,-0.02,0.86
-17.43,17.94,-27.87,-0.63,-0.24,0.74
-18.75,17.26,-27.37,-0.53,-0.18,0.83
-18.15,18.05,-29.11,-0.58,-0.25,0.77
-17.40,20.76,-28.22,-0.52,-0.27,0.81
-17.08,26.54,-29.36,-0.51,-0.42,0.75
-16.25,36.43,-23.43,-0.57,-0.64,0.51
-16.41,42.36,-18.68,-0.43,-0.89,0.16
-16.36,46.23,-10.44,-0.55,-0.83,-0.01
-16.52,46.92,-3.78,-0.53,-0.76,-0.37
-17.08,43.47,6.93,-0.57,-0.61,-0.55
-18.54,34.55,18.71,-0.76,-0.12,-0.64
-19.89,23.99,22.23,-0.60,0.03,-0.80
-20.68,20.20,21.08,-0.58,0.33,-0.74
-20.83,15.17,21.23,-0.67,0.52,-0.52
-20.89,10.38,19.82,-0.58,0.44,-0.69
-21.31,6.65,18.55,-0.73,0.64,-0.22
-20.12,1.38,14.58,-0.63,0.64,-0.44
-19.27,-2.77,9.51,-0.78,0.63,0.04
-19.75,-4.96,4.59,-0.48,0.88,0.04
-17.54,-7.31,-1.35,-0.95,0.27,0.13
-18.53,-6.45,-5.49,-0.59,0.71,0.39
-18.55,-5.52,-10.68,-0.87,0.23,0.43
-19.06,-3.42,-14.95,-0.72,0.50,0.49
-19.80,-2.08,-15.34,-0.89,0.01,0.46
-21.83,1.10,-15.61,-0.85,0.16,0.51
-23.03,4.26,-17.31,-0.78,0.30,0.55
-25.42,6.97,-16.37,-0.93,-0.33,-0.17
-28.15,11.57,-13.65,-0.53,0.46,0.71
-29.10,14.38,-14.42,-0.69,-0.71,-0.17
-30.09,20.17,-12.44,-0.94,-0.13,0.30
-31.18,24.89,-10.93,-0.62,-0.56,-0.55
-30.85,27.91,-4.65,-0.88,-0.47,0.07
-31.42,30.38,1.61,-0.70,-0.54,-0.47
-31.19,30.99,6.25,-0.76,-0.49,-0.43
-29.90,29.44,10.02,-0.70,-0.29,-0.65
-28.48,24.89,11.76,-0.60,-0.46,-0.66
-27.50,20.28,13.33,-0.66,-0.18,-0.73
-26.95,15.38,15.06,-0.47,-0.02,-0.88
-27.17,12.27,14.04,-0.62,0.21,-0.76
-26.46,8.14,11.49,-0.54,0.35,-0.76
-26.65,4.42,6.87,-0.70,0.52,-0.50
-26.20,2.16,3.36,-0.70,0.52,-0.49
-26.97,2.21,0.18,-0.65,0.74,-0.16
-26.04,0.85,1.04,-0.64,0.77,-0.07
-23.72,-1.31,-6.32,-0.64,0.75,0.16
-23.65,-0.33,-9.57,-0.52,0.69,0.51
-23.62,0.51,-13.43,-0.59,0.68,0.44
-22.07,0.45,-15.26,-0.48,0.60,0.64
-20.07,0.46,-17.04,-0.28,0.55,0.78
-17.88,0.66,-19.03,-0.28,0.53,0.80
-18.04,0.10,-20.02,-0.34,0.52,0.78
-17.76,-0.48,-19.52,-0.28,0.58,0.76
-18.14,1.11,-21.09,-0.23,0.56,0.79
-17.79,3.86,-22.51,-0.35,0.48,0.80
-18.29,5.69,-24.35,-0.25,0.58,0.77
-19.09,8.44,-25.51,-0.33,0.30,0.90
-19.32,13.53,-26.57,-0.32,0.02,0.95
-19.65,19.46,-26.10,-0.23,0.05,0.97
-20.53,26.56,-24.84,-0.34,-0.26,0.90
-21.72,32.52,-21.86,-0.27,-0.83,0.49
-23.07,38.26,-13.31,-0.38,-0.63,0.68
-23.51,39.58,-9.03,-0.41,-0.91,0.05
-24.38,39.40,-6.07,-0.42,-0.91,-0.02
-24.84,39.45,-4.57,-0.55,-0.81,0.22
-26.53,38.33,-2.81,-0.64,-0.75,-0.17
-27.59,37.22,-1.94,-0.54,-0.76,0.36
-27.83,35.62,-3.88,-0.54,-0.84,-0.04
-29.21,34.58,-3.47,-0.68,-0.66,0.32
-30.43,33.84,1.12,-0.54,-0.82,0.18
-29.49,32.57,6.99,-0.73,-0.66,-0.18
-29.47,28.41,9.68,-0.60,-0.56,-0.57
-29.88,23.21,13.00,-0.70,-0.39,-0.60
-30.09,17.16,13.98,-0.75,-0.25,-0.61
-29.79,12.52,11.98,-0.69,0.07,-0.72
-29.92,8.87,9.44,-0.62,0.38,-0.69
-29.26,4.82,6.07,-0.80,-0.10,-0.60
-29.27,3.99,4.15,-0.48,0.81,-0.34
-28.44,2.33,1.21,-0.76,0.06,-0.65
-28.92,2.81,-0.62,-0.75,0.63,-0.20
-29.08,3.53,-3.11,-0.92,0.23,-0.31
-28.52,3.80,-6.82,-0.52,0.76,-0.39
-28.81,4.39,-7.62,-0.91,0.24,0.33
-28.81,4.68,-9.53,-0.75,0.62,-0.24
-27.93,4.54,-9.63,-0.79,-0.11,0.60
-29.74,9.39,-12.04,-0.71,0.62,-0.33
-29.63,8.76,-11.13,-0.70,0.42,0.58
-27.00,2.09,-11.06,-0.94,-0.30,0.13
-26.18,1.88,-11.41,-0.90,0.14,-0.41
-27.42,2.29,-9.18,-0.82,0.54,0.17
-25.81,-1.21,-8.13,-0.96,0.27,-0.08
-25.06,-2.15,-5.33,-0.86,0.43,-0.26
-24.15,-3.56,-3.43,-0.98,-0.15,0.15
-25.24,-2.27,-0.15,-0.25,0.82,-0.51
-25.89,-1.82,0.79,-0.96,0.28,0.05
-26.37,-1.10,-2.65,-0.96,0.23,-0.14
-26.48,1.26,-7.96,-0.95,0.12,-0.28
-24.73,2.70,-14.65,-0.95,0.33,0.01
-26.34,10.66,-18.90,-0.84,-0.17,0.51
-25.61,21.40,-22.25,-0.97,-0.15,0.16
-23.91,24.41,-22.00,-0.89,-0.23,0.40
-23.77,26.95,-21.89,-0.90,-0.20,0.39
-23.79,26.37,-21.73,-0.94,-0.25,0.21
-25.57,24.26,-20.01,-0.90,-0.26,0.34
-27.14,21.24,-19.58,-0.95,-0.29,0.06
-31.04,17.15,-13.67,-0.87,0.07,0.49
-31.15,12.11,-9.55,-0.99,0.07,0.04
-30.75,9.31,-4.38,-0.99,0.12,0.05
-30.92,7.62,-0.78,-0.92,0.39,-0.09
-28.56,4.02,-5.25,-0.83,0.39,-0.39
-28.33,3.34,-5.83,-0.83,0.51,-0.22
-26.48,0.68,-6.73,-0.75,0.45,-0.48
-24.96,-0.84,-6.76,-0.83,0.55,-0.02
-24.30,-1.31,-9.34,-0.79,0.61,0.00
-21.91,-2.40,-14.09,-0.56,0.83,-0.01
-19.59,-1.97,-17.41,-0.79,0.59,0.18
-16.80,-0.93,-21.57,-0.04,0.79,0.61
-14.18,0.72,-24.79,-0.66,0.60,0.45
-13.01,2.04,-26.29,-0.32,0.68,0.66
-10.77,3.39,-27.01,-0.34,0.87,0.35
-10.69,3.32,-28.75,-0.07,0.62,0.78
-9.42,5.25,-29.09,-0.46,0.68,0.57
-8.92,5.38,-29.42,-0.26,0.58,0.77
-9.19,6.14,-30.55,-0.33,0.68,0.65
-9.42,5.58,-29.93,-0.38,0.55,0.75
-8.69,5.99,-30.04,-0.28,0.64,0.71
-8.62,5.93,-29.69,-0.24,0.62,0.75
-9.31,5.69,-29.49,-0.40,0.58,0.71
-10.39,5.57,-28.44,-0.32,0.58,0.75
-9.88,5.62,-29.14,-0.37,0.62,0.69
-10.30,5.55,-28.45,-0.33,0.81,0.48
-11.45,4.94,-28.12,-0.30,0.74,0.60
-11.43,5.58,-27.87,-0.40,0.72,0.57
-12.99,7.58,-28.31,-0.56,0.52,0.65
-14.27,13.45,-28.93,-0.44,0.38,0.81
-14.81,17.02,-29.98,-0.57,0.22,0.79
-15.43,22.53,-28.61,-0.69,-0.11,0.72
-14.99,27.66,-27.34,-0.16,0.31,0.93
-14.48,31.26,-27.10,-0.41,0.01,0.91
-14.62,33.80,-24.41,-0.49,-0.40,0.78
-15.71,37.19,-20.34,-0.38,-0.52,0.76
-18.27,39.87,-15.64,-0.48,-0.53,0.70
-20.02,41.26,-10.28,-0.40,-0.75,0.52
-21.18,41.03,-2.56,-0.54,-0.61,0.58
-23.33,38.85,2.12,-0.51,-0.86,-0.06
-23.28,35.99,8.70,-0.83,-0.45,0.33
-24.16,33.31,9.62,-0.59,-0.71,-0.38
-24.61,29.77,11.87,-0.85,-0.52,-0.07
-25.17,26.75,14.56,-0.77,-0.60,-0.20
-24.58,24.35,16.49,-0.76,-0.52,-0.39
-25.02,22.36,16.36,-0.80,-0.45,-0.38
-24.30,19.04,16.59,-0.85,-0.27,-0.45
-24.55,13.40,17.91,-0.79,-0.43,-0.45
-23.17,12.56,18.86,-0.61,-0.17,-0.77
-20.57,9.88,20.80,-0.48,0.07,-0.87
-17.68,7.59,22.01,-0.83,-0.03,-0.55
-15.78,3.60,20.86,-0.84,0.10,-0.53
-14.27,-0.10,20.01,-0.49,-0.18,-0.85
-12.27,-5.82,13.72,-0.66,0.63,-0.40
-9.62,-12.11,4.85,-0.42,0.89,-0.14
-7.69,-13.21,-6.45,-0.54,0.83,0.07
-4.24,-10.68,-13.32,-0.37,0.91,0.19
-2.59,-10.12,-16.63,-0.29,0.95,0.13
-1.38,-8.54,-19.32,-0.30,0.71,0.63
4.26,-5.79,-21.45,-0.49,0.64,0.59
4.41,-2.86,-24.17,-0.18,0.22,0.96
2.32,1.15,-27.94,-0.31,0.40,0.86
-1.43,6.40,-30.99,-0.36,0.08,0.93
-4.16,11.62,-32.75,-0.35,0.19,0.92
-6.64,16.15,-32.64,-0.64,-0.15,0.75
-9.74,20.42,-31.59,-0.78,-0.08,0.61
-14.49,25.38,-30.07,-0.64,-0.41,0.65
-17.69,31.09,-25.48,-0.90,-0.36,0.25
-21.67,34.44,-21.14,-0.51,-0.57,0.64
-23.17,35.40,-18.30,-0.92,-0.35,0.16
-23.35,35.63,-16.13,-0.86,-0.49,0.12
-24.43,38.09,-12.27,-0.69,-0.49,0.52
-25.06,38.46,-13.66,-0.84,-0.06,-0.53
-26.12,38.33,-11.77,-0.65,-0.57,0.50
-24.26,38.95,-14.00,-0.96,-0.26,-0.09
-25.17,37.82,-13.98,-0.73,-0.47,0.50
-24.58,36.99,-15.91,-0.99,-0.13,-0.08
-24.45,37.39,-17.31,-0.77,-0.57,0.30
-24.50,38.16,-15.94,-0.99,-0.10,0.06
-28.11,35.03,-14.55,-0.69,-0.57,0.44
-27.45,33.86,-17.88,-0.94,-0.32,-0.12
-26.37,35.46,-16.46,-0.78,-0.53,0.33
-25.38,38.33,-15.65,-0.94,-0.14,0.32
-23.85,41.16,-13.04,-0.90,-0.29,0.34
-21.90,43.92,-9.81,-0.68,-0.73,-0.04
-20.54,45.42,-9.95,-0.91,-0.11,-0.40
-19.97,46.25,-8.00,-0.62,-0.78,-0.03
-18.32,49.27,-3.64,-0.64,-0.75,-0.15
-16.91,47.83,7.13,-0.81,-0.50,-0.29
-16.47,38.78,17.55,-0.48,-0.49,-0.73
-14.49,33.70,22.39,-0.94,0.12,-0.30
-13.60,30.18,24.66,-0.53,-0.38,-0.76
-13.59,27.23,25.87,-0.70,0.08,-0.71
-13.88,21.24,26.82,-0.78,-0.13,-0.61
-15.38,13.27,25.33,-0.59,0.44,-0.68
-14.78,7.71,24.71,-0.57,0.29,-0.77
-14.65,5.97,24.85,-0.59,0.47,-0.66
-12.49,6.31,26.26,-0.63,0.57,-0.52
-8.80,5.88,26.31,-0.52,0.34,-0.78
-4.16,3.21,25.23,-0.36,0.65,-0.67
-0.60,-1.62,22.60,-0.34,0.70,-0.63
3.06,-2.76,21.92,-0.27,0.66,-0.70
7.25,-3.43,20.07,-0.14,0.90,-0.42
9.50,-3.96,19.35,0.09,0.55,-0.83
12.04,-3.12,17.98,0.46,0.82,-0.33
13.49,-1.98,17.81,0.36,0.73,-0.58
16.08,-1.64,17.22,0.26,0.91,-0.32
18.69,-1.01,15.64,0.41,0.79,-0.46
20.92,2.05,14.53,0.57,0.76,-0.29
21.37,2.86,14.40,0.76,0.61,-0.21
23.45,4.50,13.45,0.76,0.64,-0.14
23.25,5.21,13.12,0.81,0.51,-0.28
24.08,3.78,10.35,0.94,0.35,0.04
24.26,1.50,8.98,0.77,0.56,0.30
22.92,0.45,9.50,0.80,0.60,-0.04
22.39,-2.72,4.20,0.83,0.55,0.06
21.22,-4.85,-2.04,0.70,0.68,0.21
21.64,-4.43,-2.87,0.68,0.54,0.50
22.86,-3.65,-3.27,0.90,-0.12,0.42
21.07,-5.08,-7.68,0.50,0.74,0.45
21.22,-4.03,-10.75,0.73,0.08,0.68
19.69,-4.92,-11.21,0.55,0.68,0.49
19.43,-4.39,-12.73,0.71,0.31,0.63
19.98,-2.54,-12.98,0.84,0.05,0.54
19.20,-2.94,-15.28,0.60,0.39,0.70
19.65,-1.57,-15.23,0.82,0.07,0.56
18.58,-0.35,-17.88,0.81,0.07,0.58
18.43,3.27,-20.92,0.62,-0.07,0.78
18.16,6.74,-22.49,0.81,-0.12,0.57
18.59,8.65,-23.36,0.72,-0.18,0.67
17.86,14.89,-25.60,0.70,-0.10,0.71
17.68,19.27,-23.75,0.75,-0.58,0.32
17.41,23.11,-24.68,0.75,-0.28,0.60
16.91,27.84,-23.22,0.69,-0.68,0.23
14.44,33.83,-19.53,0.59,-0.75,0.31
13.33,38.13,-18.10,0.54,-0.82,0.19
10.46,42.83,-12.23,0.49,-0.85,0.15
9.14,44.92,-8.65,0.18,-0.96,-0.21
9.01,45.64,-2.61,0.66,-0.69,-0.30
6.85,45.45,2.39,0.17,-0.52,-0.84
7.04,44.47,7.21,0.72,-0.27,-0.63
5.51,43.38,9.80,0.32,-0.80,-0.50
6.24,42.76,11.01,0.55,-0.53,-0.64
5.66,41.50,13.12,0.53,-0.75,-0.40
6.60,40.70,14.44,0.57,-0.25,-0.79
8.20,37.55,17.31,0.57,-0.60,-0.56
10.08,32.31,18.84,0.71,-0.05,-0.70
9.86,22.62,23.33,0.41,-0.03,-0.91
13.23,15.72,22.55,0.80,0.04,-0.60
11.74,13.78,24.39,0.60,0.26,-0.75
13.54,8.89,22.77,0.85,0.28,-0.44
13.71,5.04,21.02,0.80,0.18,-0.57
14.73,1.26,19.03,0.82,0.19,-0.53
13.90,0.50,21.02,0.72,0.30,-0.63
14.44,0.07,18.47,0.64,0.13,-0.75
15.84,-1.00,17.50,0.72,0.45,-0.53
15.88,-2.77,14.81,0.69,0.66,-0.30
16.81,-2.29,14.04,0.87,0.13,-0.48
15.94,-4.55,13.68,0.72,0.56,-0.41
16.16,-5.88,10.51,0.68,0.41,-0.60
17.05,-6.65,7.81,0.82,0.35,-0.44
17.10,-7.35,6.74,0.71,0.50,-0.49
17.68,-9.13,4.47,0.86,0.26,-0.43
16.25,-9.08,5.33,0.69,0.52,-0.49
15.87,-7.89,7.54,0.68,0.63,-0.39
17.05,-7.85,6.58,0.77,0.38,-0.51
16.53,-8.63,5.55,0.70,0.38,-0.60
17.42,-8.79,-1.17,0.60,0.08,-0.80
16.26,-9.33,-4.70,0.77,0.64,-0.00
16.32,-8.67,-7.51,0.64,0.72,-0.26
16.66,-7.58,-10.33,0.69,0.72,0.01
17.21,-5.36,-13.84,0.76,0.65,0.04
18.64,-3.27,-16.97,0.71,0.67,0.22
19.91,0.66,-19.51,0.77,0.52,0.36
20.54,4.08,-21.30,0.76,0.48,0.42
20.32,10.02,-24.37,0.98,0.17,0.11
19.25,12.33,-24.91,0.81,0.28,0.52
18.60,11.69,-24.98,0.73,0.40,0.55
18.99,9.33,-24.93,0.74,0.57,0.35
18.90,5.83,-23.19,0.62,0.69,0.36
18.38,4.38,-22.06,0.71,0.61,0.35
17.81,2.72,-22.83,0.55,0.72,0.42
17.92,4.03,-23.23,0.71,0.64,0.29
18.48,4.68,-22.53,0.65,0.54,0.54
19.20,6.46,-23.65,0.45,0.63,0.63
21.48,9.31,-22.20,0.70,0.71,0.01
22.57,12.77,-23.27,0.60,0.48,0.64
23.30,14.28,-20.67,0.88,0.31,0.36
24.24,17.33,-20.31,0.82,0.19,0.54
24.66,18.15,-19.31,0.69,0.35,0.64
25.35,20.61,-17.13,0.73,0.05,0.68
26.83,21.86,-14.26,0.80,0.22,0.55
27.19,21.01,-12.39,0.71,-0.09,0.69
28.19,20.47,-11.23,0.81,-0.12,0.58
27.98,19.45,-11.74,0.71,-0.08,0.70
28.25,19.03,-10.80,0.84,0.12,0.52
28.41,19.73,-9.24,0.85,-0.15,0.50
28.44,18.75,-9.83,0.93,0.03,0.36
28.93,17.74,-10.00,0.60,-0.27,0.75
28.93,16.75,-9.51,0.94,-0.02,0.33
29.00,16.67,-9.77,0.94,-0.02,0.35
28.55,17.24,-9.59,0.83,-0.13,0.54
28.52,19.03,-7.84,0.85,-0.28,0.44
28.60,19.89,-7.59,0.84,-0.26,0.48
28.63,21.13,-7.52,0.82,-0.53,0.22
28.75,21.44,-6.40,0.80,-0.36,0.48
28.14,22.38,-6.97,0.77,-0.52,0.37
28.09,23.86,-6.43,0.71,-0.67,0.19
28.43,22.44,-5.63,0.96,0.16,0.21
28.12,23.77,-4.21,0.60,-0.78,0.14
28.45,22.13,-2.97,0.97,-0.22,0.10
28.05,23.03,-1.89,0.86,-0.50,0.09
27.98,21.30,0.35,0.93,-0.36,-0.12
28.02,20.80,2.00,0.85,-0.39,-0.36
28.89,17.61,2.28,0.89,-0.21,-0.41
29.08,17.65,3.05,0.82,-0.20,-0.54
29.63,16.17,4.47,0.82,-0.16,-0.55
29.22,16.25,3.76,0.83,-0.13,-0.54
29.26,17.99,5.04,0.63,-0.13,-0.76
29.68,16.78,3.37,0.89,-0.28,-0.37
29.46,16.72,5.09,0.59,0.23,-0.77
29.65,17.38,4.44,0.89,-0.08,-0.45
28.87,18.38,4.61,0.93,0.04,-0.35
28.47,17.44,6.09,0.73,0.16,-0.66
27.70,17.91,9.45,0.73,0.16,-0.67
27.31,17.81,8.56,0.78,-0.05,-0.62
27.26,15.45,10.60,0.66,0.47,-0.59
25.95,16.70,11.06,0.73,0.22,-0.64
26.06,19.38,11.24,0.70,0.25,-0.66
25.43,19.03,12.01,0.69,-0.12,-0.72
25.22,16.52,12.28,0.71,0.36,-0.60
24.54,14.05,13.09,0.65,0.38,-0.66
24.43,10.30,12.78,0.80,0.49,-0.34
24.34,6.69,12.08,0.63,0.68,-0.39
24.12,5.15,11.52,0.87,0.50,0.04
24.18,2.91,8.64,0.69,0.67,-0.29
24.79,-0.12,1.77,0.79,0.61,0.05
25.77,0.10,-2.15,0.73,0.52,0.44
26.05,0.52,-2.61,0.82,0.47,0.33
25.38,-0.21,-3.76,0.90,0.32,0.29
25.92,0.50,-4.97,0.79,0.50,0.34
26.11,1.66,-6.64,0.80,0.45,0.40
26.83,6.09,-8.86,0.57,-0.65,0.50
26.32,4.92,-9.39,0.85,-0.05,0.52
26.27,3.55,-8.24,0.93,0.36,0.08
25.49,1.94,-8.46,0.68,0.59,0.44
26.26,3.06,-8.85,0.89,-0.23,0.38
26.39,2.71,-9.36,0.83,0.37,0.42
25.96,3.74,-8.19,0.96,-0.00,0.28
25.51,3.37,-10.03,0.76,0.06,0.65
25.82,4.97,-11.23,0.91,-0.02,0.41
25.50,5.83,-12.85,0.82,-0.09,0.56
24.26,8.02,-15.83,0.91,-0.02,0.40
23.75,13.37,-17.87,0.93,-0.19,0.32
23.25,15.77,-18.99,0.90,-0.38,0.22
22.18,19.51,-18.95,0.87,-0.27,0.41
22.50,20.64,-20.12,0.83,-0.54,0.17
21.83,24.82,-19.62,0.88,-0.42,0.23
21.25,27.86,-17.99,0.85,-0.49,-0.17
20.30,30.36,-17.86,0.79,-0.49,0.38
19.43,33.23,-16.94,0.72,-0.61,0.34
18.42,34.69,-15.12,0.54,-0.83,0.11
18.70,36.62,-12.38,0.80,0.18,0.57
17.87,38.78,-8.85,0.81,-0.45,-0.37
17.10,40.30,-6.53,0.85,-0.50,0.12
17.41,40.25,-2.83,0.80,-0.43,-0.43
16.83,40.09,-1.90,0.85,-0.52,-0.02
16.50,40.20,0.81,0.71,-0.69,-0.09
16.72,40.01,1.51,0.78,-0.40,-0.48
16.06,40.14,6.19,0.81,-0.49,-0.30
15.53,37.26,10.99,0.82,-0.38,-0.43
15.38,32.95,16.09,0.70,-0.23,-0.68
16.85,27.08,18.59,0.82,-0.27,-0.50
16.20,23.13,20.24,0.89,-0.19,-0.41
16.24,17.46,22.14,0.76,0.06,-0.65
16.56,14.29,21.42,0.96,0.06,-0.28
17.27,13.61,20.80,0.74,0.15,-0.65
17.91,10.34,21.09,0.80,-0.28,-0.52
18.46,9.58,19.03,0.85,0.15,-0.51
18.77,5.38,18.64,0.70,0.35,-0.63
18.93,4.80,18.18,0.89,0.06,-0.45
19.40,1.84,16.35,0.88,0.19,-0.44
